ncols         70
nrows         67
xllcorner     11.334307508326
yllcorner     6.759130859542
cellsize      0.008333333768
NODATA_value  -9999
-9999 -9999 -9999 -9999 -9999 -9999 -9999 -9999 -9999 -9999 -9999 -9999 -9999 -9999 -9999 -9999 -9999 -9999 -9999 -9999 -9999 -9999 -9999 -9999 -9999 -9999 -9999 -9999 -9999 -9999 -9999 -9999 -9999 -9999 -9999 -9999 -9999 -9999 -9999 -9999 -9999 -9999 -9999 -9999 -9999 -9999 -9999 -9999 -9999 -9999 -9999 -9999 -9999 -9999 -9999 -9999 -9999 -9999 -9999 -9999 -9999 -9999 -9999 -9999 -9999 -9999 -9999 -9999 -9999 -9999 
383 394 397 394 396 396 408 415 395 386 383 386 487 395 374 401 421 423 478 713 793 1006 974 570 517 462 415 455 540 474 495 529 593 646 754 927 858 890 887 849 873 996 1078 1395 1628 1519 1397 1321 1330 1276 1222 1197 1248 1199 1206 1204 1246 1112 1195 1207 1226 1224 1244 1345 1389 1271 1080 1131 1147 1203 
370 384 382 376 383 388 396 415 431 403 404 396 405 388 375 361 423 423 438 489 586 876 987 946 678 518 491 487 440 455 432 513 548 520 598 719 704 715 729 787 842 892 990 1073 1291 1482 1462 1318 1387 1255 1246 1240 1237 1235 1217 1220 1235 1142 1123 1173 1220 1234 1276 1443 1293 1124 1116 1129 1117 1150 
357 368 369 389 396 403 405 412 466 429 407 417 404 382 382 367 397 435 540 649 924 751 741 676 585 473 456 505 519 505 505 457 456 495 510 625 610 679 697 755 880 936 1111 1215 1322 1484 1403 1288 1360 1255 1240 1231 1223 1228 1222 1226 1239 1180 1110 1156 1231 1263 1373 1323 1238 1217 1147 1159 1164 1170 
356 369 379 394 398 427 415 422 431 438 436 434 409 386 374 423 462 589 575 619 695 728 527 528 570 543 488 500 586 546 520 515 479 473 492 550 613 623 679 765 970 1013 1154 1212 1228 1498 1361 1265 1277 1251 1237 1214 1241 1241 1241 1242 1227 1211 1097 1227 1321 1325 1419 1235 1164 1159 1111 1147 1170 1224 
360 379 384 390 401 407 427 436 428 413 427 442 504 398 387 432 503 656 697 565 496 492 498 757 845 698 542 480 500 529 550 552 551 527 504 538 564 576 671 787 943 831 1013 1073 1125 1371 1360 1271 1267 1242 1238 1234 1244 1250 1314 1236 1231 1210 1120 1196 1355 1351 1282 1226 1180 1182 1116 1162 1192 1228 
361 369 383 390 388 398 451 423 406 411 446 453 454 493 379 436 520 550 449 451 486 577 725 914 1053 871 659 511 493 520 562 613 616 621 577 530 543 573 632 803 775 745 901 1081 1298 1403 1441 1303 1267 1247 1232 1244 1221 1258 1351 1262 1264 1266 1175 1195 1273 1260 1214 1194 1183 1167 1125 1147 1192 1227 
387 364 371 381 394 385 396 402 401 408 429 452 467 492 405 387 400 427 431 487 496 659 860 1121 1279 937 657 534 491 522 557 683 742 666 558 531 541 571 616 680 646 670 891 1096 1319 1351 1348 1316 1253 1257 1254 1236 1259 1231 1366 1301 1233 1231 1212 1198 1226 1272 1244 1197 1165 1198 1186 1147 1160 1206 
384 381 382 366 369 373 387 393 411 417 444 454 472 491 505 409 413 434 547 559 567 686 956 1194 1110 834 548 522 506 519 575 634 741 611 556 544 536 558 576 609 614 706 770 1068 1189 1097 1270 1271 1258 1235 1235 1220 1220 1182 1186 1154 1150 1149 1147 1157 1178 1215 1191 1207 1219 1231 1224 1149 1138 1206 
387 377 382 404 411 394 379 398 418 460 439 458 513 567 618 501 387 416 435 494 665 780 890 1074 1095 809 608 515 523 561 554 620 719 686 571 569 557 548 564 578 617 644 743 1008 975 970 1151 1214 1264 1232 1223 1201 1183 1207 1244 1201 1178 1180 1177 1157 1170 1178 1187 1211 1230 1226 1175 1158 1170 1169 
400 378 382 398 416 404 399 398 509 415 422 424 469 577 604 536 414 404 426 455 533 636 804 994 1036 863 612 523 540 585 593 573 703 610 613 570 564 546 613 666 678 672 674 776 974 1012 1080 1198 1267 1252 1215 1227 1259 1229 1238 1246 1202 1236 1183 1172 1169 1167 1190 1238 1229 1195 1200 1208 1195 1203 
409 395 385 402 425 422 414 420 394 401 422 474 461 484 592 666 535 406 421 438 491 713 871 920 858 671 580 537 536 555 645 652 637 611 605 611 585 572 584 602 633 649 675 802 913 960 1004 1217 1280 1254 1171 1186 1395 1342 1376 1365 1250 1390 1318 1184 1231 1170 1320 1272 1239 1210 1240 1256 1205 1228 
412 402 406 402 414 454 493 415 407 401 423 428 550 550 501 510 570 429 407 421 464 510 782 997 918 686 590 547 539 542 547 583 665 584 596 631 609 589 595 596 627 686 704 886 744 847 887 1052 990 942 1061 1366 1396 1478 1621 1400 1441 1443 1495 1316 1290 1183 1298 1262 1243 1265 1247 1241 1197 1233 
433 414 419 418 436 431 411 403 411 437 432 446 491 593 507 510 527 469 434 438 421 546 778 1128 1063 817 610 592 580 584 573 552 580 567 596 602 623 646 632 634 622 689 694 739 707 756 768 770 867 939 973 1275 1451 1620 1535 1454 1527 1598 1464 1319 1325 1214 1270 1264 1273 1297 1257 1256 1245 1300 
436 431 426 447 426 412 393 422 431 452 562 573 512 643 650 539 554 584 541 440 442 579 885 1085 1210 826 677 679 638 622 595 571 551 559 579 584 620 720 687 708 632 636 638 653 678 725 817 983 1020 1086 1011 1222 1468 1662 1584 1498 1582 1630 1466 1468 1458 1277 1354 1331 1307 1304 1439 1301 1255 1349 
432 442 450 444 416 407 416 438 455 478 490 570 597 710 768 538 554 653 534 640 470 558 734 939 880 881 668 670 605 598 566 563 553 579 613 610 623 659 663 752 682 668 655 660 685 734 808 999 913 1135 1162 1245 1326 1518 1461 1533 1584 1449 1394 1532 1493 1370 1375 1433 1320 1409 1476 1298 1286 1255 
450 458 451 437 440 418 412 433 478 487 511 654 713 961 958 766 578 605 541 528 489 506 662 719 738 710 643 653 613 595 577 584 559 558 606 617 601 624 689 799 841 841 805 716 704 748 799 848 888 1009 1175 1161 1299 1289 1303 1234 1300 1316 1405 1607 1489 1397 1402 1412 1338 1430 1474 1270 1441 1335 
463 595 631 687 468 431 415 443 464 518 588 738 983 1071 1237 938 643 639 556 503 493 584 576 675 719 740 756 845 722 645 616 587 574 558 562 605 693 638 717 777 734 802 818 711 702 744 758 741 922 1073 1266 1210 1189 1199 1211 1234 1280 1331 1393 1490 1505 1469 1543 1570 1415 1505 1511 1517 1566 1366 
477 551 472 478 444 425 418 445 481 525 684 885 1103 1251 1318 1116 883 750 705 560 512 647 734 862 964 1116 842 912 772 663 612 589 589 591 570 614 643 609 638 653 709 757 725 686 798 836 909 896 822 1069 1310 1270 1220 1196 1225 1225 1255 1362 1338 1370 1440 1526 1622 1710 1575 1359 1580 1741 1590 1489 
476 472 455 442 434 431 420 439 504 530 702 966 1081 1195 1344 1176 990 754 704 595 654 636 780 824 941 943 778 663 669 626 626 601 600 589 569 574 594 613 629 642 622 637 642 652 851 1013 919 980 846 842 864 1241 1212 1228 1370 1387 1271 1411 1374 1380 1530 1541 1668 1772 1585 1512 1502 1686 1636 1354 
459 461 458 445 441 431 431 455 546 649 815 809 1011 1091 1285 1257 1200 857 695 624 688 572 667 674 745 667 661 645 636 607 608 597 600 587 591 596 611 632 691 643 633 761 676 678 786 887 836 897 920 801 811 961 1085 1224 1244 1307 1289 1358 1500 1457 1438 1470 1659 1707 1513 1661 1686 1619 1596 1381 
457 450 445 443 432 428 435 514 638 743 1067 1048 1018 1091 1185 1195 1030 1054 736 755 737 644 641 751 785 758 761 766 796 730 648 660 623 595 592 683 688 635 615 665 784 826 746 858 698 786 806 914 970 979 887 843 937 1012 961 1073 1323 1252 1522 1557 1570 1567 1649 1686 1621 1654 1737 1749 1682 1439 
452 450 441 435 431 439 454 543 610 731 990 1217 1265 1326 1331 1243 1009 825 777 749 756 751 802 747 708 773 904 873 970 905 665 729 635 611 604 627 710 654 627 641 712 759 914 938 888 854 806 835 1089 1169 1045 936 930 918 927 1036 1133 1261 1476 1604 1794 1723 1707 1884 1853 1818 1852 1854 1609 1451 
462 450 443 444 445 451 464 503 594 804 1121 1214 1343 1434 1514 1245 1146 901 976 943 863 775 809 823 766 761 827 1014 993 905 866 862 686 634 643 651 715 660 682 735 730 801 907 981 996 871 892 827 903 1243 1322 1201 983 1036 1062 1195 1105 1149 1275 1470 1654 1579 1711 1782 1910 1875 1848 1833 1783 1444 
457 459 445 442 449 458 465 488 593 699 858 1178 1364 1460 1411 1292 973 947 950 870 830 828 807 852 934 898 858 993 898 896 996 963 711 703 726 789 806 679 906 872 794 969 968 1083 1082 1047 1154 971 880 995 1297 1425 1267 1182 1214 1297 1227 1304 1265 1441 1491 1607 1632 1857 1875 1894 1857 1813 1758 1574 
456 439 435 440 443 460 475 500 523 625 740 1093 1199 1395 1285 1132 980 943 887 875 880 811 837 836 855 936 980 893 873 929 918 886 779 826 887 960 928 872 803 919 953 945 995 1203 1337 1269 1218 1159 931 1071 1150 1558 1382 1479 1322 1465 1457 1396 1434 1450 1443 1768 1753 1834 1840 1897 1836 1815 1775 1577 
440 441 442 447 449 455 466 490 503 530 615 823 937 1147 1084 1078 974 890 880 857 844 835 826 852 875 885 884 870 854 869 879 885 896 893 949 1054 1019 898 875 906 955 999 1233 1385 1387 1459 1497 1387 1182 1082 1127 1280 1484 1640 1663 1711 1791 1448 1581 1663 1586 1605 1744 1777 1849 1909 1780 1770 1549 1361 
459 454 442 448 452 458 471 489 506 531 570 666 683 761 821 991 1134 924 914 873 852 840 836 842 854 848 861 843 863 860 863 868 881 876 919 911 930 873 903 1017 990 1073 1347 1538 1733 1697 1544 1395 1179 1097 1385 1356 1397 1538 1735 2012 2089 1934 1816 1771 1840 1849 1705 1788 1799 1737 1541 1530 1353 1188 
468 453 437 455 454 467 471 485 500 511 646 672 629 695 872 1100 1148 979 1034 985 934 900 836 824 822 838 848 838 842 854 853 863 859 873 950 943 932 918 912 1033 1034 1188 1307 1492 2150 1961 1687 1342 1279 1124 1252 1390 1474 1609 1817 2042 2160 1978 1855 1814 1842 1775 1779 1799 1796 1747 1590 1390 1246 1111 
463 463 463 465 462 475 485 493 506 523 551 917 902 847 1020 1207 1298 1149 1093 911 882 865 839 826 816 827 819 819 826 837 847 849 856 882 953 1092 948 983 1041 1098 1227 1293 1568 1599 2050 2263 1825 1517 1383 1320 1345 1444 1585 1674 2021 2063 1857 1877 1889 1853 1788 1785 1631 1723 1862 1803 1718 1560 1201 1112 
475 465 476 460 473 489 514 588 674 627 669 591 712 984 1093 1373 1334 1198 1006 886 869 884 866 862 842 850 844 824 846 843 881 1009 860 883 914 1005 1035 1032 1119 1163 1229 1360 1614 1929 2163 2210 1690 1631 1539 1531 1481 1445 1650 1963 2151 2017 1750 1734 1776 1761 1639 1737 1526 1679 1770 1768 1799 1679 1387 1087 
485 525 481 478 494 509 513 673 716 778 839 722 705 816 986 1210 1127 1018 913 945 978 1009 950 1005 946 883 854 836 826 856 962 1111 1048 899 908 955 1090 1150 1092 1114 1189 1283 1423 1793 2183 2341 2083 1845 1816 1714 1733 1665 1823 2058 2110 1821 1695 1627 1624 1689 1491 1484 1518 1446 1768 1754 1676 1535 1370 1096 
496 494 484 482 481 497 516 566 661 808 1157 898 855 987 1081 1247 1286 1206 1094 1211 1079 1151 1173 1164 979 889 850 838 832 841 1022 1187 1137 951 949 1009 1292 1261 1206 1158 1239 1335 1440 1716 2255 2372 2332 2302 1988 1873 1993 1971 1933 2102 1962 1860 1727 1640 1560 1608 1610 1458 1424 1436 1620 1739 1650 1375 1195 1198 
515 505 500 496 489 493 522 542 831 887 1193 997 988 1197 1348 1503 1520 1384 1392 1346 1319 1317 1248 1148 941 879 861 859 842 860 862 957 952 939 963 1049 1105 1281 1376 1292 1296 1395 1514 1695 2079 2381 2124 2152 1895 1672 1866 1933 1819 1767 1595 1562 1610 1772 1708 1605 1461 1450 1314 1250 1561 1588 1634 1334 1154 1193 
537 517 513 556 493 498 631 707 749 854 944 1063 1143 1199 1461 1525 1540 1530 1537 1515 1344 1251 1153 1029 934 900 890 854 865 863 874 869 895 910 949 1004 1130 1199 1356 1480 1415 1550 1636 1828 1998 2227 2265 2051 1752 1690 1698 1681 1683 1629 1532 1492 1707 1788 1783 1692 1628 1532 1413 1278 1459 1478 1205 1214 1095 1131 
595 555 540 630 507 516 516 550 562 667 685 784 948 1070 1271 1517 1546 1539 1551 1546 1342 1336 1328 1166 1041 934 900 873 877 887 878 906 938 981 954 995 1081 1132 1219 1410 1576 1651 1933 1867 1896 1897 1709 1901 1581 1556 1468 1450 1528 1443 1486 1407 1558 1716 1674 1636 1644 1599 1573 1145 1426 1209 1181 1096 1061 1082 
697 612 561 564 545 543 536 540 580 637 746 897 1092 1217 1373 1533 1505 1547 1551 1581 1502 1438 1500 1548 1053 959 919 901 887 897 897 929 974 1139 1139 1121 1106 1108 1245 1361 1492 1790 1720 1732 1732 1588 1613 1777 1491 1410 1384 1275 1326 1352 1499 1540 1323 1482 1599 1709 1592 1540 1526 1199 1080 1134 1082 1081 1058 1087 
703 623 615 612 656 612 606 565 662 754 799 969 1150 1336 1486 1505 1514 1533 1539 1570 1561 1526 1501 1450 1192 1036 959 915 916 939 926 931 1010 1108 1266 1264 1241 1201 1271 1410 1561 1536 1507 1586 1617 1510 1467 1706 1482 1274 1359 1302 1196 1290 1450 1481 1279 1278 1474 1692 1574 1565 1423 1174 1094 1078 1063 1043 1049 1094 
751 691 775 779 739 719 651 647 746 856 1005 984 1183 1414 1514 1519 1537 1537 1562 1573 1571 1556 1572 1597 1399 1140 1012 1033 989 956 1017 1193 1169 1206 1313 1432 1332 1331 1384 1441 1447 1459 1439 1584 1654 1498 1370 1404 1533 1176 1284 1334 1281 1237 1304 1363 1229 1232 1472 1661 1447 1350 1239 1093 1072 1046 1057 1038 1042 1031 
861 869 903 957 947 913 799 865 793 941 1219 1257 1334 1372 1440 1467 1532 1529 1549 1574 1589 1580 1585 1602 1563 1315 1100 1160 1133 1046 1084 1249 1402 1329 1370 1491 1452 1468 1465 1437 1375 1364 1396 1533 1476 1482 1406 1297 1349 1221 1177 1332 1232 1163 1193 1200 1177 1385 1471 1594 1415 1346 1194 1137 1074 1057 1035 1015 1026 1008 
1277 1158 1233 1200 1268 1138 906 1046 927 1153 1294 1449 1453 1466 1503 1457 1500 1527 1542 1556 1578 1563 1580 1597 1604 1566 1271 1360 1268 1258 1194 1214 1512 1601 1522 1471 1437 1416 1380 1404 1396 1377 1485 1623 1423 1414 1423 1316 1236 1213 1274 1303 1176 1128 1130 1137 1179 1330 1428 1376 1484 1397 1179 1178 1117 1056 1026 1037 1049 1046 
1539 1556 1397 1449 1286 1152 1029 1126 1083 1238 1517 1531 1505 1547 1546 1482 1512 1561 1529 1562 1570 1576 1586 1571 1609 1609 1556 1552 1552 1535 1443 1358 1426 1615 1616 1533 1475 1462 1443 1445 1420 1285 1418 1505 1377 1351 1289 1215 1163 1141 1257 1215 1179 1106 1091 1135 1217 1373 1425 1213 1319 1239 1162 1236 1167 1091 1076 1053 1051 1055 
1544 1550 1577 1575 1597 1441 1508 1496 1536 1309 1539 1538 1527 1511 1553 1554 1586 1554 1571 1562 1562 1556 1566 1575 1583 1588 1561 1556 1571 1558 1558 1535 1650 1676 1771 1587 1427 1340 1305 1333 1314 1297 1343 1411 1359 1367 1293 1276 1269 1167 1145 1146 1154 1126 1105 1125 1155 1245 1288 1162 1148 1098 1098 1109 1208 1099 1098 1073 1075 1079 
1500 1525 1554 1572 1563 1541 1564 1570 1565 1558 1562 1551 1519 1548 1543 1551 1573 1529 1530 1555 1545 1540 1566 1571 1577 1585 1572 1579 1570 1586 1587 1639 1673 1708 1750 1638 1497 1381 1339 1274 1275 1263 1283 1294 1331 1316 1303 1216 1165 1198 1132 1083 1105 1088 1094 1146 1182 1390 1130 1169 1091 1073 1075 1088 1130 1116 1106 1107 1094 1110 
1522 1520 1571 1564 1550 1561 1562 1564 1563 1570 1546 1550 1544 1555 1534 1523 1525 1551 1574 1548 1571 1574 1565 1579 1577 1589 1587 1597 1655 1698 1613 1624 1655 1718 1776 1714 1540 1452 1376 1299 1266 1269 1238 1276 1305 1285 1386 1222 1178 1084 1086 1072 1083 1153 1141 1118 1280 1335 1097 1112 1077 1050 1055 1061 1112 1112 1088 1097 1107 1074 
1491 1469 1510 1554 1557 1546 1561 1559 1561 1565 1550 1519 1544 1540 1519 1564 1558 1577 1572 1576 1587 1578 1583 1557 1556 1569 1590 1617 1678 1698 1694 1713 1745 1721 1748 1801 1638 1556 1334 1304 1281 1400 1359 1306 1226 1246 1262 1245 1201 1118 1122 1146 1074 1071 1146 1198 1279 1124 1091 1124 1085 1042 1040 1081 1132 1103 1074 1076 1071 1073 
1395 1421 1484 1539 1551 1531 1572 1569 1600 1545 1535 1535 1523 1532 1536 1557 1545 1551 1576 1600 1613 1605 1570 1562 1568 1576 1600 1586 1611 1657 1726 1719 1734 1707 1754 1781 1614 1431 1344 1657 1511 1531 1442 1362 1304 1235 1212 1233 1194 1172 1255 1114 1109 1093 1074 1081 1123 1083 1069 1085 1096 1045 1028 1049 1106 1077 1074 1049 1064 1126 
1515 1568 1518 1522 1520 1566 1576 1579 1583 1590 1564 1550 1540 1509 1528 1519 1553 1557 1565 1580 1603 1601 1574 1559 1590 1559 1590 1581 1567 1596 1591 1618 1658 1620 1635 1669 1614 1503 1570 1676 1674 1609 1580 1536 1357 1281 1238 1214 1243 1297 1274 1233 1189 1158 1162 1039 1047 1059 1062 1071 1072 1100 1011 1064 1062 1077 1050 1043 1094 1072 
1469 1463 1462 1471 1531 1542 1568 1588 1584 1589 1567 1557 1557 1523 1499 1520 1548 1517 1564 1565 1565 1586 1564 1532 1549 1576 1589 1549 1592 1635 1617 1637 1619 1602 1625 1728 1901 1731 1630 1703 1681 1591 1564 1419 1359 1225 1232 1209 1217 1268 1282 1250 1185 1124 1169 1086 1037 1039 1044 1057 1040 1084 1013 1005 1054 1052 1014 1023 1044 1085 
1379 1357 1371 1367 1428 1465 1536 1560 1555 1558 1549 1564 1521 1505 1532 1533 1521 1522 1525 1573 1580 1571 1578 1555 1554 1552 1563 1562 1582 1594 1730 1672 1631 1585 1624 1812 1874 1655 1550 1469 1601 1566 1400 1341 1288 1211 1211 1195 1168 1237 1238 1162 1129 1096 1124 1078 1075 1083 1026 1023 1027 1022 1064 1044 1001 1028 1024 1008 1044 1086 
1471 1493 1556 1498 1456 1468 1498 1530 1543 1541 1543 1542 1557 1510 1465 1507 1501 1522 1570 1574 1566 1553 1584 1571 1576 1522 1547 1566 1597 1580 1582 1584 1573 1587 1639 1788 1773 1687 1630 1445 1421 1366 1323 1329 1275 1318 1286 1215 1163 1204 1236 1145 1103 1093 1118 1108 1066 1089 1024 1053 1123 1084 1065 1023 1033 997 1011 995 1043 1052 
1535 1508 1506 1545 1521 1505 1557 1595 1541 1513 1529 1495 1528 1524 1460 1512 1512 1533 1564 1575 1544 1543 1566 1550 1542 1536 1571 1592 1547 1568 1542 1549 1561 1571 1539 1652 1768 1686 1645 1474 1324 1290 1268 1261 1318 1327 1272 1204 1166 1213 1206 1166 1104 1062 1095 1106 1094 1093 1029 1090 1098 1163 1082 1066 1054 1028 1009 1024 989 985 
1494 1521 1530 1518 1538 1532 1555 1545 1546 1525 1531 1504 1486 1494 1458 1501 1492 1523 1556 1565 1535 1542 1535 1532 1502 1570 1578 1575 1574 1494 1499 1552 1521 1567 1445 1575 1707 1535 1542 1305 1282 1267 1257 1246 1256 1255 1254 1210 1199 1196 1178 1145 1062 1090 1080 1055 1065 1082 1039 1060 1084 1081 1086 1067 1047 1010 1019 1025 1023 984 
1486 1499 1498 1530 1526 1537 1560 1543 1552 1541 1508 1514 1496 1468 1455 1500 1543 1561 1546 1561 1508 1558 1493 1524 1564 1568 1570 1592 1565 1516 1424 1429 1514 1502 1342 1526 1492 1410 1316 1356 1280 1257 1253 1237 1232 1226 1242 1234 1219 1127 1093 1124 1096 1112 1137 1105 1078 1074 1065 1066 1077 1066 1049 1047 1016 1030 1061 1010 1005 1031 
1465 1498 1528 1508 1516 1521 1566 1528 1524 1532 1491 1511 1479 1448 1516 1516 1515 1549 1518 1520 1539 1551 1491 1540 1545 1548 1563 1542 1525 1491 1438 1388 1334 1427 1379 1480 1355 1330 1316 1333 1285 1266 1273 1279 1230 1228 1246 1243 1212 1184 1181 1153 1126 1226 1167 1149 1116 1119 1100 1103 1096 1061 1033 1041 1041 1049 1052 1030 1017 1001 
1407 1520 1538 1503 1541 1553 1564 1556 1520 1497 1487 1448 1470 1453 1496 1543 1527 1546 1511 1505 1486 1512 1506 1531 1552 1568 1564 1545 1555 1533 1506 1553 1383 1331 1376 1410 1322 1295 1332 1265 1265 1247 1228 1220 1209 1220 1235 1234 1220 1223 1207 1157 1138 1190 1210 1179 1139 1106 1094 1082 1108 1089 1057 1058 1061 1044 1067 1049 1039 1003 
1396 1446 1477 1488 1495 1531 1529 1562 1573 1514 1521 1486 1459 1505 1507 1512 1526 1514 1473 1510 1529 1552 1552 1531 1523 1525 1532 1558 1571 1576 1607 1511 1436 1328 1313 1384 1335 1275 1338 1278 1246 1223 1226 1208 1207 1231 1239 1228 1232 1212 1204 1183 1175 1188 1198 1183 1109 1093 1084 1095 1111 1100 1097 1094 1089 1053 1070 1091 1033 993 
1368 1379 1512 1537 1521 1514 1514 1546 1548 1546 1499 1488 1438 1481 1490 1512 1509 1499 1474 1489 1565 1533 1540 1527 1520 1542 1562 1571 1590 1592 1468 1361 1315 1300 1325 1292 1264 1284 1344 1354 1336 1234 1223 1217 1216 1226 1235 1217 1224 1213 1171 1185 1158 1169 1162 1146 1119 1082 1066 1076 1096 1094 1083 1109 1091 1095 1104 1103 1066 1040 
1398 1432 1454 1546 1485 1536 1522 1547 1521 1512 1508 1453 1473 1471 1484 1497 1458 1472 1467 1499 1506 1459 1510 1504 1519 1554 1565 1546 1578 1611 1488 1505 1441 1487 1469 1404 1263 1264 1268 1348 1287 1260 1248 1197 1215 1225 1220 1226 1221 1207 1197 1152 1138 1156 1114 1087 1086 1077 1058 1065 1066 1076 1076 1088 1087 1081 1081 1084 1061 1057 
1388 1428 1462 1524 1502 1490 1556 1546 1523 1510 1474 1452 1424 1458 1497 1477 1473 1484 1491 1495 1513 1513 1487 1488 1517 1543 1540 1516 1593 1599 1574 1597 1512 1749 1652 1570 1377 1249 1244 1279 1301 1250 1217 1195 1202 1217 1216 1221 1220 1207 1184 1145 1116 1131 1110 1124 1078 1099 1079 1067 1049 1061 1060 1076 1108 1143 1070 1092 1085 1053 
1315 1396 1491 1491 1513 1524 1533 1525 1530 1510 1470 1451 1451 1419 1424 1460 1493 1481 1495 1524 1546 1538 1512 1506 1476 1486 1514 1529 1590 1644 1662 1603 1700 1760 1698 1660 1520 1209 1210 1293 1284 1270 1226 1187 1202 1218 1206 1214 1211 1209 1193 1171 1116 1184 1155 1174 1189 1144 1090 1079 1044 1045 1053 1054 1100 1057 1065 1055 1058 1083 
1365 1354 1464 1427 1515 1530 1508 1505 1494 1474 1459 1433 1418 1459 1484 1453 1453 1502 1538 1542 1561 1561 1510 1543 1508 1546 1555 1568 1611 1651 1679 1666 1606 1757 1602 1568 1385 1250 1197 1255 1244 1246 1225 1214 1188 1216 1202 1204 1218 1212 1193 1152 1146 1180 1182 1180 1177 1131 1099 1078 1062 1039 1038 1034 1043 1034 1033 1030 1024 1039 
1426 1444 1446 1435 1493 1467 1476 1476 1505 1459 1409 1412 1502 1469 1508 1479 1501 1470 1506 1540 1570 1548 1537 1524 1513 1588 1581 1689 1629 1663 1653 1608 1520 1525 1480 1463 1294 1277 1220 1192 1228 1208 1208 1207 1190 1205 1193 1203 1201 1214 1176 1151 1145 1174 1155 1130 1125 1111 1093 1060 1057 1058 1058 1086 1095 1074 1058 1066 1059 1033 
1348 1348 1317 1438 1537 1508 1437 1432 1427 1403 1447 1472 1471 1500 1513 1484 1480 1525 1474 1495 1541 1517 1498 1484 1527 1680 1615 1681 1842 1729 1653 1488 1387 1308 1496 1363 1218 1237 1218 1190 1218 1251 1222 1195 1179 1200 1183 1186 1212 1215 1189 1164 1136 1133 1103 1103 1102 1093 1074 1075 1078 1060 1077 1108 1120 1106 1095 1080 1039 1017 
1287 1277 1291 1378 1435 1441 1435 1397 1399 1414 1443 1455 1454 1512 1523 1505 1487 1472 1458 1475 1494 1499 1505 1471 1513 1699 1669 1750 1748 1765 1626 1565 1336 1303 1272 1239 1282 1256 1199 1185 1274 1216 1201 1179 1176 1188 1188 1173 1191 1197 1202 1194 1131 1121 1124 1137 1119 1103 1105 1097 1084 1070 1099 1096 1102 1098 1079 1070 1060 1024 
1320 1277 1279 1282 1284 1289 1455 1441 1492 1506 1511 1473 1500 1512 1520 1450 1413 1464 1499 1492 1517 1418 1468 1458 1472 1679 1620 1805 1756 1727 1725 1642 1548 1400 1248 1243 1286 1268 1202 1182 1190 1198 1197 1202 1195 1170 1169 1175 1186 1192 1208 1212 1178 1159 1135 1120 1109 1115 1095 1107 1111 1094 1125 1109 1082 1075 1071 1071 1048 1036 
1340 1325 1317 1284 1285 1296 1461 1506 1457 1516 1520 1490 1506 1537 1442 1384 1391 1452 1489 1494 1470 1434 1471 1457 1514 1608 1583 1688 1710 1713 1735 1603 1450 1381 1282 1288 1263 1211 1212 1206 1229 1176 1208 1200 1199 1203 1183 1166 1195 1209 1220 1200 1158 1135 1117 1091 1115 1094 1073 1088 1087 1089 1123 1112 1058 1045 1054 1046 1039 1015 
